6400
     3.930000     -2.542564     1.196440
     3.930000     -2.503728     1.275713
     3.930000     -2.462422     1.353728
     3.930000     -2.418685     1.430406
     3.930000     -2.372561     1.505673
     3.930000     -2.324096     1.579454
     3.930000     -2.273338     1.651677
     3.930000     -2.220336     1.722269
     3.930000     -2.165142     1.791161
     3.930000     -2.107812     1.858286
     3.930000     -2.048402     1.923577
     3.930000     -1.986970     1.986970
     3.930000     -1.923577     2.048402
     3.930000     -1.858286     2.107812
     3.930000     -1.791161     2.165142
     3.930000     -1.722269     2.220336
     3.930000     -1.651677     2.273338
     3.930000     -1.579454     2.324096
     3.930000     -1.505673     2.372561
     3.930000     -1.430406     2.418685
     3.930000     -1.353728     2.462422
     3.930000     -1.275713     2.503728
     3.930000     -1.196440     2.542564
     3.930000     -1.115986     2.578890
     3.930000     -1.034430     2.612672
     3.930000     -0.951854     2.643875
     3.930000     -0.868338     2.672469
     3.930000     -0.783965     2.698425
     3.930000     -0.698819     2.721719
     3.930000     -0.612983     2.742326
     3.930000     -0.526541     2.760227
     3.930000     -0.439581     2.775404
     3.930000     -0.352186     2.787842
     3.930000     -0.264444     2.797529
     3.930000     -0.176441     2.804455
     3.930000     -0.088264     2.808613
     3.930000     -0.000000     2.810000
     3.930000     0.088264     2.808613
     3.930000     0.176441     2.804455
     3.930000     0.264444     2.797529
     3.930000     0.352186     2.787842
     3.930000     0.439581     2.775404
     3.930000     0.526541     2.760227
     3.930000     0.612983     2.742326
     3.930000     0.698819     2.721719
     3.930000     0.783965     2.698425
     3.930000     0.868338     2.672469
     3.930000     0.951854     2.643875
     3.930000     1.034430     2.612672
     3.930000     1.115986     2.578890
     3.930000     1.196440     2.542564
     3.930000     1.275713     2.503728
     3.930000     1.353728     2.462422
     3.930000     1.430406     2.418685
     3.930000     1.505673     2.372561
     3.930000     1.579454     2.324096
     3.930000     1.651677     2.273338
     3.930000     1.722269     2.220336
     3.930000     1.791161     2.165142
     3.930000     1.858286     2.107812
     3.930000     1.923577     2.048402
     3.930000     1.986970     1.986970
     3.930000     2.048402     1.923577
     3.930000     2.107812     1.858286
     3.930000     2.165142     1.791161
     3.930000     2.220336     1.722269
     3.930000     2.273338     1.651677
     3.930000     2.324096     1.579454
     3.930000     2.372561     1.505673
     3.930000     2.418685     1.430406
     3.930000     2.462422     1.353728
     3.930000     2.503728     1.275713
     3.930000     2.542564     1.196440
     3.930000     2.578890     1.115986
     3.930000     2.612672     1.034430
     3.930000     2.643875     0.951854
     3.930000     2.672469     0.868338
     3.930000     2.698425     0.783965
     3.930000     2.721719     0.698819
     3.930000     2.742326     0.612983
     3.930000     2.760227     0.526541
     3.930000     2.775404     0.439581
     3.930000     2.787842     0.352186
     3.930000     2.797529     0.264444
     3.930000     2.804455     0.176441
     3.930000     2.808613     0.088264
     3.930000     2.810000     0.000000
     3.930000     2.808613     -0.088264
     3.930000     2.804455     -0.176441
     3.930000     2.797529     -0.264444
     3.930000     2.787842     -0.352186
     3.930000     2.775404     -0.439581
     3.930000     2.760227     -0.526541
     3.930000     2.742326     -0.612983
     3.930000     2.721719     -0.698819
     3.930000     2.698425     -0.783965
     3.930000     2.672469     -0.868338
     3.930000     2.643875     -0.951854
     3.930000     2.612672     -1.034430
     3.930000     2.578890     -1.115986
     3.930000     2.542564     -1.196440
     3.930000     2.503728     -1.275713
     3.930000     2.462422     -1.353728
     3.930000     2.418685     -1.430406
     3.930000     2.372561     -1.505673
     3.930000     2.324096     -1.579454
     3.930000     2.273338     -1.651677
     3.930000     2.220336     -1.722269
     3.930000     2.165142     -1.791161
     3.930000     2.107812     -1.858286
     3.930000     2.048402     -1.923577
     3.930000     1.986970     -1.986970
     3.930000     1.923577     -2.048402
     3.930000     1.858286     -2.107812
     3.930000     1.791161     -2.165142
     3.930000     1.722269     -2.220336
     3.930000     1.651677     -2.273338
     3.930000     1.579454     -2.324096
     3.930000     1.505673     -2.372561
     3.930000     1.430406     -2.418685
     3.930000     1.353728     -2.462422
     3.930000     1.275713     -2.503728
     3.930000     1.196440     -2.542564
     3.930000     1.115986     -2.578890
     3.930000     1.034430     -2.612672
     3.930000     0.951854     -2.643875
     3.930000     0.868338     -2.672469
     3.930000     0.783965     -2.698425
     3.930000     0.698819     -2.721719
     3.930000     0.612983     -2.742326
     3.930000     0.526541     -2.760227
     3.930000     0.439581     -2.775404
     3.930000     0.352186     -2.787842
     3.930000     0.264444     -2.797529
     3.930000     0.176441     -2.804455
     3.930000     0.088264     -2.808613
     4.210000     0.000000     -3.410000
     4.210000     -0.107111     -3.408317
     4.210000     -0.214116     -3.403271
     4.210000     -0.320909     -3.394866
     4.210000     -0.427386     -3.383111
     4.210000     -0.533442     -3.368017
     4.210000     -0.638970     -3.349600
     4.210000     -0.743868     -3.327876
     4.210000     -0.848033     -3.302869
     4.210000     -0.951360     -3.274601
     4.210000     -1.053748     -3.243103
     4.210000     -1.155096     -3.208403
     4.210000     -1.255305     -3.170538
     4.210000     -1.354274     -3.129543
     4.210000     -1.451907     -3.085460
     4.210000     -1.548108     -3.038332
     4.210000     -1.642780     -2.988206
     4.210000     -1.735831     -2.935130
     4.210000     -1.827169     -2.879158
     4.210000     -1.916704     -2.820345
     4.210000     -2.004348     -2.758748
     4.210000     -2.090013     -2.694429
     4.210000     -2.173616     -2.627450
     4.210000     -2.255073     -2.557879
     4.210000     -2.334306     -2.485783
     4.210000     -2.411234     -2.411234
     4.210000     -2.485783     -2.334306
     4.210000     -2.557879     -2.255073
     4.210000     -2.627450     -2.173616
     4.210000     -2.694429     -2.090013
     4.210000     -2.758748     -2.004348
     4.210000     -2.820345     -1.916704
     4.210000     -2.879158     -1.827169
     4.210000     -2.935130     -1.735831
     4.210000     -2.988206     -1.642780
     4.210000     -3.038332     -1.548108
     4.210000     -3.085460     -1.451907
     4.210000     -3.129543     -1.354274
     4.210000     -3.170538     -1.255305
     4.210000     -3.208403     -1.155096
     4.210000     -3.243103     -1.053748
     4.210000     -3.274601     -0.951360
     4.210000     -3.302869     -0.848033
     4.210000     -3.327876     -0.743868
     4.210000     -3.349600     -0.638970
     4.210000     -3.368017     -0.533442
     4.210000     -3.383111     -0.427386
     4.210000     -3.394866     -0.320909
     4.210000     -3.403271     -0.214116
     4.210000     -3.408317     -0.107111
     4.210000     -3.410000     -0.000000
     4.210000     -3.408317     0.107111
     4.210000     -3.403271     0.214116
     4.210000     -3.394866     0.320909
     4.210000     -3.383111     0.427386
     4.210000     -3.368017     0.533442
     4.210000     -3.349600     0.638970
     4.210000     -3.327876     0.743868
     4.210000     -3.302869     0.848033
     4.210000     -3.274601     0.951360
     4.210000     -3.243103     1.053748
     4.210000     -3.208403     1.155096
     4.210000     -3.170538     1.255305
     4.210000     -3.129543     1.354274
     4.210000     -3.085460     1.451907
     4.210000     -3.038332     1.548108
     4.210000     -2.988206     1.642780
     4.210000     -2.935130     1.735831
     4.210000     -2.879158     1.827169
     4.210000     -2.820345     1.916704
     4.210000     -2.758748     2.004348
     4.210000     -2.694429     2.090013
     4.210000     -2.627450     2.173616
     4.210000     -2.557879     2.255073
     4.210000     -2.485783     2.334306
     4.210000     -2.411234     2.411234
     4.210000     -2.334306     2.485783
     4.210000     -2.255073     2.557879
     4.210000     -2.173616     2.627450
     4.210000     -2.090013     2.694429
     4.210000     -2.004348     2.758748
     4.210000     -1.916704     2.820345
     4.210000     -1.827169     2.879158
     4.210000     -1.735831     2.935130
     4.210000     -1.642780     2.988206
     4.210000     -1.548108     3.038332
     4.210000     -1.451907     3.085460
     4.210000     -1.354274     3.129543
     4.210000     -1.255305     3.170538
     4.210000     -1.155096     3.208403
     4.210000     -1.053748     3.243103
     4.210000     -0.951360     3.274601
     4.210000     -0.848033     3.302869
     4.210000     -0.743868     3.327876
     4.210000     -0.638970     3.349600
     4.210000     -0.533442     3.368017
     4.210000     -0.427386     3.383111
     4.210000     -0.320909     3.394866
     4.210000     -0.214116     3.403271
     4.210000     -0.107111     3.408317
     4.210000     -0.000000     3.410000
     4.210000     0.107111     3.408317
     4.210000     0.214116     3.403271
     4.210000     0.320909     3.394866
     4.210000     0.427386     3.383111
     4.210000     0.533442     3.368017
     4.210000     0.638970     3.349600
     4.210000     0.743868     3.327876
     4.210000     0.848033     3.302869
     4.210000     0.951360     3.274601
     4.210000     1.053748     3.243103
     4.210000     1.155096     3.208403
     4.210000     1.255305     3.170538
     4.210000     1.354274     3.129543
     4.210000     1.451907     3.085460
     4.210000     1.548108     3.038332
     4.210000     1.642780     2.988206
     4.210000     1.735831     2.935130
     4.210000     1.827169     2.879158
     4.210000     1.916704     2.820345
     4.210000     2.004348     2.758748
     4.210000     2.090013     2.694429
     4.210000     2.173616     2.627450
     4.210000     2.255073     2.557879
     4.210000     2.334306     2.485783
     4.210000     2.411234     2.411234
     4.210000     2.485783     2.334306
     4.210000     2.557879     2.255073
     4.210000     2.627450     2.173616
     4.210000     2.694429     2.090013
     4.210000     2.758748     2.004348
     4.210000     2.820345     1.916704
     4.210000     2.879158     1.827169
     4.210000     2.935130     1.735831
     4.210000     2.988206     1.642780
     4.210000     3.038332     1.548108
     4.210000     3.085460     1.451907
     4.210000     3.129543     1.354274
     4.210000     3.170538     1.255305
     4.210000     3.208403     1.155096
     4.210000     3.243103     1.053748
     4.210000     3.274601     0.951360
     4.210000     3.302869     0.848033
     4.210000     3.327876     0.743868
     4.210000     3.349600     0.638970
     4.210000     3.368017     0.533442
     4.210000     3.383111     0.427386
     4.210000     3.394866     0.320909
     4.210000     3.403271     0.214116
     4.210000     3.408317     0.107111
     4.210000     3.410000     0.000000
     4.210000     3.408317     -0.107111
     4.210000     3.403271     -0.214116
     4.210000     3.394866     -0.320909
     4.210000     3.383111     -0.427386
     4.210000     3.368017     -0.533442
     4.210000     3.349600     -0.638970
     4.210000     3.327876     -0.743868
     4.210000     3.302869     -0.848033
     4.210000     3.274601     -0.951360
     4.210000     3.243103     -1.053748
     4.210000     3.208403     -1.155096
     4.210000     3.170538     -1.255305
     4.210000     3.129543     -1.354274
     4.210000     3.085460     -1.451907
     4.210000     3.038332     -1.548108
     4.210000     2.988206     -1.642780
     4.210000     2.935130     -1.735831
     4.210000     2.879158     -1.827169
     4.210000     2.820345     -1.916704
     4.210000     2.758748     -2.004348
     4.210000     2.694429     -2.090013
     4.210000     2.627450     -2.173616
     4.210000     2.557879     -2.255073
     4.210000     2.485783     -2.334306
     4.210000     2.411234     -2.411234
     4.210000     2.334306     -2.485783
     4.210000     2.255073     -2.557879
     4.210000     2.173616     -2.627450
     4.210000     2.090013     -2.694429
     4.210000     2.004348     -2.758748
     4.210000     1.916704     -2.820345
     4.210000     1.827169     -2.879158
     4.210000     1.735831     -2.935130
     4.210000     1.642780     -2.988206
     4.210000     1.548108     -3.038332
     4.210000     1.451907     -3.085460
     4.210000     1.354274     -3.129543
     4.210000     1.255305     -3.170538
     4.210000     1.155096     -3.208403
     4.210000     1.053748     -3.243103
     4.210000     0.951360     -3.274601
     4.210000     0.848033     -3.302869
     4.210000     0.743868     -3.327876
     4.210000     0.638970     -3.349600
     4.210000     0.533442     -3.368017
     4.210000     0.427386     -3.383111
     4.210000     0.320909     -3.394866
     4.210000     0.214116     -3.403271
     4.210000     0.107111     -3.408317
     4.520000     0.000000     -3.760000
     4.520000     -0.118104     -3.758145
     4.520000     -0.236092     -3.752580
     4.520000     -0.353847     -3.743313
     4.520000     -0.471253     -3.730351
     4.520000     -0.588194     -3.713708
     4.520000     -0.704554     -3.693400
     4.520000     -0.820219     -3.669447
     4.520000     -0.935074     -3.641873
     4.520000     -1.049007     -3.610704
     4.520000     -1.161904     -3.575973
     4.520000     -1.273655     -3.537712
     4.520000     -1.384148     -3.495960
     4.520000     -1.493276     -3.450757
     4.520000     -1.600930     -3.402150
     4.520000     -1.707004     -3.350185
     4.520000     -1.811394     -3.294913
     4.520000     -1.913996     -3.236390
     4.520000     -2.014709     -3.174673
     4.520000     -2.113434     -3.109823
     4.520000     -2.210073     -3.041904
     4.520000     -2.304531     -2.970983
     4.520000     -2.396714     -2.897130
     4.520000     -2.486533     -2.820418
     4.520000     -2.573897     -2.740922
     4.520000     -2.658721     -2.658721
     4.520000     -2.740922     -2.573897
     4.520000     -2.820418     -2.486533
     4.520000     -2.897130     -2.396714
     4.520000     -2.970983     -2.304531
     4.520000     -3.041904     -2.210073
     4.520000     -3.109823     -2.113434
     4.520000     -3.174673     -2.014709
     4.520000     -3.236390     -1.913996
     4.520000     -3.294913     -1.811394
     4.520000     -3.350185     -1.707004
     4.520000     -3.402150     -1.600930
     4.520000     -3.450757     -1.493276
     4.520000     -3.495960     -1.384148
     4.520000     -3.537712     -1.273655
     4.520000     -3.575973     -1.161904
     4.520000     -3.610704     -1.049007
     4.520000     -3.641873     -0.935074
     4.520000     -3.669447     -0.820219
     4.520000     -3.693400     -0.704554
     4.520000     -3.713708     -0.588194
     4.520000     -3.730351     -0.471253
     4.520000     -3.743313     -0.353847
     4.520000     -3.752580     -0.236092
     4.520000     -3.758145     -0.118104
     4.520000     -3.760000     -0.000000
     4.520000     -3.758145     0.118104
     4.520000     -3.752580     0.236092
     4.520000     -3.743313     0.353847
     4.520000     -3.730351     0.471253
     4.520000     -3.713708     0.588194
     4.520000     -3.693400     0.704554
     4.520000     -3.669447     0.820219
     4.520000     -3.641873     0.935074
     4.520000     -3.610704     1.049007
     4.520000     -3.575973     1.161904
     4.520000     -3.537712     1.273655
     4.520000     -3.495960     1.384148
     4.520000     -3.450757     1.493276
     4.520000     -3.402150     1.600930
     4.520000     -3.350185     1.707004
     4.520000     -3.294913     1.811394
     4.520000     -3.236390     1.913996
     4.520000     -3.174673     2.014709
     4.520000     -3.109823     2.113434
     4.520000     -3.041904     2.210073
     4.520000     -2.970983     2.304531
     4.520000     -2.897130     2.396714
     4.520000     -2.820418     2.486533
     4.520000     -2.740922     2.573897
     4.520000     -2.658721     2.658721
     4.520000     -2.573897     2.740922
     4.520000     -2.486533     2.820418
     4.520000     -2.396714     2.897130
     4.520000     -2.304531     2.970983
     4.520000     -2.210073     3.041904
     4.520000     -2.113434     3.109823
     4.520000     -2.014709     3.174673
     4.520000     -1.913996     3.236390
     4.520000     -1.811394     3.294913
     4.520000     -1.707004     3.350185
     4.520000     -1.600930     3.402150
     4.520000     -1.493276     3.450757
     4.520000     -1.384148     3.495960
     4.520000     -1.273655     3.537712
     4.520000     -1.161904     3.575973
     4.520000     -1.049007     3.610704
     4.520000     -0.935074     3.641873
     4.520000     -0.820219     3.669447
     4.520000     -0.704554     3.693400
     4.520000     -0.588194     3.713708
     4.520000     -0.471253     3.730351
     4.520000     -0.353847     3.743313
     4.520000     -0.236092     3.752580
     4.520000     -0.118104     3.758145
     4.520000     -0.000000     3.760000
     4.520000     0.118104     3.758145
     4.520000     0.236092     3.752580
     4.520000     0.353847     3.743313
     4.520000     0.471253     3.730351
     4.520000     0.588194     3.713708
     4.520000     0.704554     3.693400
     4.520000     0.820219     3.669447
     4.520000     0.935074     3.641873
     4.520000     1.049007     3.610704
     4.520000     1.161904     3.575973
     4.520000     1.273655     3.537712
     4.520000     1.384148     3.495960
     4.520000     1.493276     3.450757
     4.520000     1.600930     3.402150
     4.520000     1.707004     3.350185
     4.520000     1.811394     3.294913
     4.520000     1.913996     3.236390
     4.520000     2.014709     3.174673
     4.520000     2.113434     3.109823
     4.520000     2.210073     3.041904
     4.520000     2.304531     2.970983
     4.520000     2.396714     2.897130
     4.520000     2.486533     2.820418
     4.520000     2.573897     2.740922
     4.520000     2.658721     2.658721
     4.520000     2.740922     2.573897
     4.520000     2.820418     2.486533
     4.520000     2.897130     2.396714
     4.520000     2.970983     2.304531
     4.520000     3.041904     2.210073
     4.520000     3.109823     2.113434
     4.520000     3.174673     2.014709
     4.520000     3.236390     1.913996
     4.520000     3.294913     1.811394
     4.520000     3.350185     1.707004
     4.520000     3.402150     1.600930
     4.520000     3.450757     1.493276
     4.520000     3.495960     1.384148
     4.520000     3.537712     1.273655
     4.520000     3.575973     1.161904
     4.520000     3.610704     1.049007
     4.520000     3.641873     0.935074
     4.520000     3.669447     0.820219
     4.520000     3.693400     0.704554
     4.520000     3.713708     0.588194
     4.520000     3.730351     0.471253
     4.520000     3.743313     0.353847
     4.520000     3.752580     0.236092
     4.520000     3.758145     0.118104
     4.520000     3.760000     0.000000
     4.520000     3.758145     -0.118104
     4.520000     3.752580     -0.236092
     4.520000     3.743313     -0.353847
     4.520000     3.730351     -0.471253
     4.520000     3.713708     -0.588194
     4.520000     3.693400     -0.704554
     4.520000     3.669447     -0.820219
     4.520000     3.641873     -0.935074
     4.520000     3.610704     -1.049007
     4.520000     3.575973     -1.161904
     4.520000     3.537712     -1.273655
     4.520000     3.495960     -1.384148
     4.520000     3.450757     -1.493276
     4.520000     3.402150     -1.600930
     4.520000     3.350185     -1.707004
     4.520000     3.294913     -1.811394
     4.520000     3.236390     -1.913996
     4.520000     3.174673     -2.014709
     4.520000     3.109823     -2.113434
     4.520000     3.041904     -2.210073
     4.520000     2.970983     -2.304531
     4.520000     2.897130     -2.396714
     4.520000     2.820418     -2.486533
     4.520000     2.740922     -2.573897
     4.520000     2.658721     -2.658721
     4.520000     2.573897     -2.740922
     4.520000     2.486533     -2.820418
     4.520000     2.396714     -2.897130
     4.520000     2.304531     -2.970983
     4.520000     2.210073     -3.041904
     4.520000     2.113434     -3.109823
     4.520000     2.014709     -3.174673
     4.520000     1.913996     -3.236390
     4.520000     1.811394     -3.294913
     4.520000     1.707004     -3.350185
     4.520000     1.600930     -3.402150
     4.520000     1.493276     -3.450757
     4.520000     1.384148     -3.495960
     4.520000     1.273655     -3.537712
     4.520000     1.161904     -3.575973
     4.520000     1.049007     -3.610704
     4.520000     0.935074     -3.641873
     4.520000     0.820219     -3.669447
     4.520000     0.704554     -3.693400
     4.520000     0.588194     -3.713708
     4.520000     0.471253     -3.730351
     4.520000     0.353847     -3.743313
     4.520000     0.236092     -3.752580
     4.520000     0.118104     -3.758145
     5.070000     0.000000     -4.070000
     5.070000     -0.127842     -4.067992
     5.070000     -0.255557     -4.061969
     5.070000     -0.383021     -4.051937
     5.070000     -0.510106     -4.037907
     5.070000     -0.636688     -4.019892
     5.070000     -0.762642     -3.997909
     5.070000     -0.887843     -3.971981
     5.070000     -1.012168     -3.942133
     5.070000     -1.135494     -3.908395
     5.070000     -1.257699     -3.870800
     5.070000     -1.378663     -3.829385
     5.070000     -1.498267     -3.784190
     5.070000     -1.616392     -3.735261
     5.070000     -1.732922     -3.682646
     5.070000     -1.847741     -3.626397
     5.070000     -1.960737     -3.566568
     5.070000     -2.071799     -3.503220
     5.070000     -2.180815     -3.436415
     5.070000     -2.287679     -3.366218
     5.070000     -2.392286     -3.292699
     5.070000     -2.494532     -3.215931
     5.070000     -2.594316     -3.135989
     5.070000     -2.691539     -3.052952
     5.070000     -2.786107     -2.966902
     5.070000     -2.877925     -2.877925
     5.070000     -2.966902     -2.786107
     5.070000     -3.052952     -2.691539
     5.070000     -3.135989     -2.594316
     5.070000     -3.215931     -2.494532
     5.070000     -3.292699     -2.392286
     5.070000     -3.366218     -2.287679
     5.070000     -3.436415     -2.180815
     5.070000     -3.503220     -2.071799
     5.070000     -3.566568     -1.960737
     5.070000     -3.626397     -1.847741
     5.070000     -3.682646     -1.732922
     5.070000     -3.735261     -1.616392
     5.070000     -3.784190     -1.498267
     5.070000     -3.829385     -1.378663
     5.070000     -3.870800     -1.257699
     5.070000     -3.908395     -1.135494
     5.070000     -3.942133     -1.012168
     5.070000     -3.971981     -0.887843
     5.070000     -3.997909     -0.762642
     5.070000     -4.019892     -0.636688
     5.070000     -4.037907     -0.510106
     5.070000     -4.051937     -0.383021
     5.070000     -4.061969     -0.255557
     5.070000     -4.067992     -0.127842
     5.070000     -4.070000     -0.000000
     5.070000     -4.067992     0.127842
     5.070000     -4.061969     0.255557
     5.070000     -4.051937     0.383021
     5.070000     -4.037907     0.510106
     5.070000     -4.019892     0.636688
     5.070000     -3.997909     0.762642
     5.070000     -3.971981     0.887843
     5.070000     -3.942133     1.012168
     5.070000     -3.908395     1.135494
     5.070000     -3.870800     1.257699
     5.070000     -3.829385     1.378663
     5.070000     -3.784190     1.498267
     5.070000     -3.735261     1.616392
     5.070000     -3.682646     1.732922
     5.070000     -3.626397     1.847741
     5.070000     -3.566568     1.960737
     5.070000     -3.503220     2.071799
     5.070000     -3.436415     2.180815
     5.070000     -3.366218     2.287679
     5.070000     -3.292699     2.392286
     5.070000     -3.215931     2.494532
     5.070000     -3.135989     2.594316
     5.070000     -3.052952     2.691539
     5.070000     -2.966902     2.786107
     5.070000     -2.877925     2.877925
     5.070000     -2.786107     2.966902
     5.070000     -2.691539     3.052952
     5.070000     -2.594316     3.135989
     5.070000     -2.494532     3.215931
     5.070000     -2.392286     3.292699
     5.070000     -2.287679     3.366218
     5.070000     -2.180815     3.436415
     5.070000     -2.071799     3.503220
     5.070000     -1.960737     3.566568
     5.070000     -1.847741     3.626397
     5.070000     -1.732922     3.682646
     5.070000     -1.616392     3.735261
     5.070000     -1.498267     3.784190
     5.070000     -1.378663     3.829385
     5.070000     -1.257699     3.870800
     5.070000     -1.135494     3.908395
     5.070000     -1.012168     3.942133
     5.070000     -0.887843     3.971981
     5.070000     -0.762642     3.997909
     5.070000     -0.636688     4.019892
     5.070000     -0.510106     4.037907
     5.070000     -0.383021     4.051937
     5.070000     -0.255557     4.061969
     5.070000     -0.127842     4.067992
     5.070000     -0.000000     4.070000
     5.070000     0.127842     4.067992
     5.070000     0.255557     4.061969
     5.070000     0.383021     4.051937
     5.070000     0.510106     4.037907
     5.070000     0.636688     4.019892
     5.070000     0.762642     3.997909
     5.070000     0.887843     3.971981
     5.070000     1.012168     3.942133
     5.070000     1.135494     3.908395
     5.070000     1.257699     3.870800
     5.070000     1.378663     3.829385
     5.070000     1.498267     3.784190
     5.070000     1.616392     3.735261
     5.070000     1.732922     3.682646
     5.070000     1.847741     3.626397
     5.070000     1.960737     3.566568
     5.070000     2.071799     3.503220
     5.070000     2.180815     3.436415
     5.070000     2.287679     3.366218
     5.070000     2.392286     3.292699
     5.070000     2.494532     3.215931
     5.070000     2.594316     3.135989
     5.070000     2.691539     3.052952
     5.070000     2.786107     2.966902
     5.070000     2.877925     2.877925
     5.070000     2.966902     2.786107
     5.070000     3.052952     2.691539
     5.070000     3.135989     2.594316
     5.070000     3.215931     2.494532
     5.070000     3.292699     2.392286
     5.070000     3.366218     2.287679
     5.070000     3.436415     2.180815
     5.070000     3.503220     2.071799
     5.070000     3.566568     1.960737
     5.070000     3.626397     1.847741
     5.070000     3.682646     1.732922
     5.070000     3.735261     1.616392
     5.070000     3.784190     1.498267
     5.070000     3.829385     1.378663
     5.070000     3.870800     1.257699
     5.070000     3.908395     1.135494
     5.070000     3.942133     1.012168
     5.070000     3.971981     0.887843
     5.070000     3.997909     0.762642
     5.070000     4.019892     0.636688
     5.070000     4.037907     0.510106
     5.070000     4.051937     0.383021
     5.070000     4.061969     0.255557
     5.070000     4.067992     0.127842
     5.070000     4.070000     0.000000
     5.070000     4.067992     -0.127842
     5.070000     4.061969     -0.255557
     5.070000     4.051937     -0.383021
     5.070000     4.037907     -0.510106
     5.070000     4.019892     -0.636688
     5.070000     3.997909     -0.762642
     5.070000     3.971981     -0.887843
     5.070000     3.942133     -1.012168
     5.070000     3.908395     -1.135494
     5.070000     3.870800     -1.257699
     5.070000     3.829385     -1.378663
     5.070000     3.784190     -1.498267
     5.070000     3.735261     -1.616392
     5.070000     3.682646     -1.732922
     5.070000     3.626397     -1.847741
     5.070000     3.566568     -1.960737
     5.070000     3.503220     -2.071799
     5.070000     3.436415     -2.180815
     5.070000     3.366218     -2.287679
     5.070000     3.292699     -2.392286
     5.070000     3.215931     -2.494532
     5.070000     3.135989     -2.594316
     5.070000     3.052952     -2.691539
     5.070000     2.966902     -2.786107
     5.070000     2.877925     -2.877925
     5.070000     2.786107     -2.966902
     5.070000     2.691539     -3.052952
     5.070000     2.594316     -3.135989
     5.070000     2.494532     -3.215931
     5.070000     2.392286     -3.292699
     5.070000     2.287679     -3.366218
     5.070000     2.180815     -3.436415
     5.070000     2.071799     -3.503220
     5.070000     1.960737     -3.566568
     5.070000     1.847741     -3.626397
     5.070000     1.732922     -3.682646
     5.070000     1.616392     -3.735261
     5.070000     1.498267     -3.784190
     5.070000     1.378663     -3.829385
     5.070000     1.257699     -3.870800
     5.070000     1.135494     -3.908395
     5.070000     1.012168     -3.942133
     5.070000     0.887843     -3.971981
     5.070000     0.762642     -3.997909
     5.070000     0.636688     -4.019892
     5.070000     0.510106     -4.037907
     5.070000     0.383021     -4.051937
     5.070000     0.255557     -4.061969
     5.070000     0.127842     -4.067992
     5.900000     0.000000     -3.780000
     5.900000     -0.118733     -3.778135
     5.900000     -0.237348     -3.772541
     5.900000     -0.355729     -3.763224
     5.900000     -0.473760     -3.750194
     5.900000     -0.591322     -3.733462
     5.900000     -0.708301     -3.713046
     5.900000     -0.824581     -3.688965
     5.900000     -0.940048     -3.661244
     5.900000     -1.054586     -3.629910
     5.900000     -1.168084     -3.594994
     5.900000     -1.280429     -3.556529
     5.900000     -1.391511     -3.514555
     5.900000     -1.501219     -3.469112
     5.900000     -1.609446     -3.420246
     5.900000     -1.716084     -3.368005
     5.900000     -1.821029     -3.312439
     5.900000     -1.924177     -3.253605
     5.900000     -2.025425     -3.191560
     5.900000     -2.124675     -3.126365
     5.900000     -2.221828     -3.058084
     5.900000     -2.316789     -2.986786
     5.900000     -2.409463     -2.912540
     5.900000     -2.499759     -2.835420
     5.900000     -2.587588     -2.755501
     5.900000     -2.672864     -2.672864
     5.900000     -2.755501     -2.587588
     5.900000     -2.835420     -2.499759
     5.900000     -2.912540     -2.409463
     5.900000     -2.986786     -2.316789
     5.900000     -3.058084     -2.221828
     5.900000     -3.126365     -2.124675
     5.900000     -3.191560     -2.025425
     5.900000     -3.253605     -1.924177
     5.900000     -3.312439     -1.821029
     5.900000     -3.368005     -1.716084
     5.900000     -3.420246     -1.609446
     5.900000     -3.469112     -1.501219
     5.900000     -3.514555     -1.391511
     5.900000     -3.556529     -1.280429
     5.900000     -3.594994     -1.168084
     5.900000     -3.629910     -1.054586
     5.900000     -3.661244     -0.940048
     5.900000     -3.688965     -0.824581
     5.900000     -3.713046     -0.708301
     5.900000     -3.733462     -0.591322
     5.900000     -3.750194     -0.473760
     5.900000     -3.763224     -0.355729
     5.900000     -3.772541     -0.237348
     5.900000     -3.778135     -0.118733
     5.900000     -3.780000     -0.000000
     5.900000     -3.778135     0.118733
     5.900000     -3.772541     0.237348
     5.900000     -3.763224     0.355729
     5.900000     -3.750194     0.473760
     5.900000     -3.733462     0.591322
     5.900000     -3.713046     0.708301
     5.900000     -3.688965     0.824581
     5.900000     -3.661244     0.940048
     5.900000     -3.629910     1.054586
     5.900000     -3.594994     1.168084
     5.900000     -3.556529     1.280429
     5.900000     -3.514555     1.391511
     5.900000     -3.469112     1.501219
     5.900000     -3.420246     1.609446
     5.900000     -3.368005     1.716084
     5.900000     -3.312439     1.821029
     5.900000     -3.253605     1.924177
     5.900000     -3.191560     2.025425
     5.900000     -3.126365     2.124675
     5.900000     -3.058084     2.221828
     5.900000     -2.986786     2.316789
     5.900000     -2.912540     2.409463
     5.900000     -2.835420     2.499759
     5.900000     -2.755501     2.587588
     5.900000     -2.672864     2.672864
     5.900000     -2.587588     2.755501
     5.900000     -2.499759     2.835420
     5.900000     -2.409463     2.912540
     5.900000     -2.316789     2.986786
     5.900000     -2.221828     3.058084
     5.900000     -2.124675     3.126365
     5.900000     -2.025425     3.191560
     5.900000     -1.924177     3.253605
     5.900000     -1.821029     3.312439
     5.900000     -1.716084     3.368005
     5.900000     -1.609446     3.420246
     5.900000     -1.501219     3.469112
     5.900000     -1.391511     3.514555
     5.900000     -1.280429     3.556529
     5.900000     -1.168084     3.594994
     5.900000     -1.054586     3.629910
     5.900000     -0.940048     3.661244
     5.900000     -0.824581     3.688965
     5.900000     -0.708301     3.713046
     5.900000     -0.591322     3.733462
     5.900000     -0.473760     3.750194
     5.900000     -0.355729     3.763224
     5.900000     -0.237348     3.772541
     5.900000     -0.118733     3.778135
     5.900000     -0.000000     3.780000
     5.900000     0.118733     3.778135
     5.900000     0.237348     3.772541
     5.900000     0.355729     3.763224
     5.900000     0.473760     3.750194
     5.900000     0.591322     3.733462
     5.900000     0.708301     3.713046
     5.900000     0.824581     3.688965
     5.900000     0.940048     3.661244
     5.900000     1.054586     3.629910
     5.900000     1.168084     3.594994
     5.900000     1.280429     3.556529
     5.900000     1.391511     3.514555
     5.900000     1.501219     3.469112
     5.900000     1.609446     3.420246
     5.900000     1.716084     3.368005
     5.900000     1.821029     3.312439
     5.900000     1.924177     3.253605
     5.900000     2.025425     3.191560
     5.900000     2.124675     3.126365
     5.900000     2.221828     3.058084
     5.900000     2.316789     2.986786
     5.900000     2.409463     2.912540
     5.900000     2.499759     2.835420
     5.900000     2.587588     2.755501
     5.900000     2.672864     2.672864
     5.900000     2.755501     2.587588
     5.900000     2.835420     2.499759
     5.900000     2.912540     2.409463
     5.900000     2.986786     2.316789
     5.900000     3.058084     2.221828
     5.900000     3.126365     2.124675
     5.900000     3.191560     2.025425
     5.900000     3.253605     1.924177
     5.900000     3.312439     1.821029
     5.900000     3.368005     1.716084
     5.900000     3.420246     1.609446
     5.900000     3.469112     1.501219
     5.900000     3.514555     1.391511
     5.900000     3.556529     1.280429
     5.900000     3.594994     1.168084
     5.900000     3.629910     1.054586
     5.900000     3.661244     0.940048
     5.900000     3.688965     0.824581
     5.900000     3.713046     0.708301
     5.900000     3.733462     0.591322
     5.900000     3.750194     0.473760
     5.900000     3.763224     0.355729
     5.900000     3.772541     0.237348
     5.900000     3.778135     0.118733
     5.900000     3.780000     0.000000
     5.900000     3.778135     -0.118733
     5.900000     3.772541     -0.237348
     5.900000     3.763224     -0.355729
     5.900000     3.750194     -0.473760
     5.900000     3.733462     -0.591322
     5.900000     3.713046     -0.708301
     5.900000     3.688965     -0.824581
     5.900000     3.661244     -0.940048
     5.900000     3.629910     -1.054586
     5.900000     3.594994     -1.168084
     5.900000     3.556529     -1.280429
     5.900000     3.514555     -1.391511
     5.900000     3.469112     -1.501219
     5.900000     3.420246     -1.609446
     5.900000     3.368005     -1.716084
     5.900000     3.312439     -1.821029
     5.900000     3.253605     -1.924177
     5.900000     3.191560     -2.025425
     5.900000     3.126365     -2.124675
     5.900000     3.058084     -2.221828
     5.900000     2.986786     -2.316789
     5.900000     2.912540     -2.409463
     5.900000     2.835420     -2.499759
     5.900000     2.755501     -2.587588
     5.900000     2.672864     -2.672864
     5.900000     2.587588     -2.755501
     5.900000     2.499759     -2.835420
     5.900000     2.409463     -2.912540
     5.900000     2.316789     -2.986786
     5.900000     2.221828     -3.058084
     5.900000     2.124675     -3.126365
     5.900000     2.025425     -3.191560
     5.900000     1.924177     -3.253605
     5.900000     1.821029     -3.312439
     5.900000     1.716084     -3.368005
     5.900000     1.609446     -3.420246
     5.900000     1.501219     -3.469112
     5.900000     1.391511     -3.514555
     5.900000     1.280429     -3.556529
     5.900000     1.168084     -3.594994
     5.900000     1.054586     -3.629910
     5.900000     0.940048     -3.661244
     5.900000     0.824581     -3.688965
     5.900000     0.708301     -3.713046
     5.900000     0.591322     -3.733462
     5.900000     0.473760     -3.750194
     5.900000     0.355729     -3.763224
     5.900000     0.237348     -3.772541
     5.900000     0.118733     -3.778135
     6.130000     0.000000     -3.510000
     6.130000     -0.110252     -3.508268
     6.130000     -0.220395     -3.503074
     6.130000     -0.330320     -3.494422
     6.130000     -0.439920     -3.482323
     6.130000     -0.549085     -3.466786
     6.130000     -0.657708     -3.447828
     6.130000     -0.765683     -3.425468
     6.130000     -0.872902     -3.399727
     6.130000     -0.979259     -3.370631
     6.130000     -1.084650     -3.338208
     6.130000     -1.188970     -3.302491
     6.130000     -1.292117     -3.263515
     6.130000     -1.393989     -3.221319
     6.130000     -1.494485     -3.175943
     6.130000     -1.593507     -3.127433
     6.130000     -1.690955     -3.075836
     6.130000     -1.786735     -3.021205
     6.130000     -1.880752     -2.963591
     6.130000     -1.972913     -2.903053
     6.130000     -2.063126     -2.839650
     6.130000     -2.151304     -2.773444
     6.130000     -2.237358     -2.704501
     6.130000     -2.321205     -2.632890
     6.130000     -2.402760     -2.558680
     6.130000     -2.481945     -2.481945
     6.130000     -2.558680     -2.402760
     6.130000     -2.632890     -2.321205
     6.130000     -2.704501     -2.237358
     6.130000     -2.773444     -2.151304
     6.130000     -2.839650     -2.063126
     6.130000     -2.903053     -1.972913
     6.130000     -2.963591     -1.880752
     6.130000     -3.021205     -1.786735
     6.130000     -3.075836     -1.690955
     6.130000     -3.127433     -1.593507
     6.130000     -3.175943     -1.494485
     6.130000     -3.221319     -1.393989
     6.130000     -3.263515     -1.292117
     6.130000     -3.302491     -1.188970
     6.130000     -3.338208     -1.084650
     6.130000     -3.370631     -0.979259
     6.130000     -3.399727     -0.872902
     6.130000     -3.425468     -0.765683
     6.130000     -3.447828     -0.657708
     6.130000     -3.466786     -0.549085
     6.130000     -3.482323     -0.439920
     6.130000     -3.494422     -0.330320
     6.130000     -3.503074     -0.220395
     6.130000     -3.508268     -0.110252
     6.130000     -3.510000     -0.000000
     6.130000     -3.508268     0.110252
     6.130000     -3.503074     0.220395
     6.130000     -3.494422     0.330320
     6.130000     -3.482323     0.439920
     6.130000     -3.466786     0.549085
     6.130000     -3.447828     0.657708
     6.130000     -3.425468     0.765683
     6.130000     -3.399727     0.872902
     6.130000     -3.370631     0.979259
     6.130000     -3.338208     1.084650
     6.130000     -3.302491     1.188970
     6.130000     -3.263515     1.292117
     6.130000     -3.221319     1.393989
     6.130000     -3.175943     1.494485
     6.130000     -3.127433     1.593507
     6.130000     -3.075836     1.690955
     6.130000     -3.021205     1.786735
     6.130000     -2.963591     1.880752
     6.130000     -2.903053     1.972913
     6.130000     -2.839650     2.063126
     6.130000     -2.773444     2.151304
     6.130000     -2.704501     2.237358
     6.130000     -2.632890     2.321205
     6.130000     -2.558680     2.402760
     6.130000     -2.481945     2.481945
     6.130000     -2.402760     2.558680
     6.130000     -2.321205     2.632890
     6.130000     -2.237358     2.704501
     6.130000     -2.151304     2.773444
     6.130000     -2.063126     2.839650
     6.130000     -1.972913     2.903053
     6.130000     -1.880752     2.963591
     6.130000     -1.786735     3.021205
     6.130000     -1.690955     3.075836
     6.130000     -1.593507     3.127433
     6.130000     -1.494485     3.175943
     6.130000     -1.393989     3.221319
     6.130000     -1.292117     3.263515
     6.130000     -1.188970     3.302491
     6.130000     -1.084650     3.338208
     6.130000     -0.979259     3.370631
     6.130000     -0.872902     3.399727
     6.130000     -0.765683     3.425468
     6.130000     -0.657708     3.447828
     6.130000     -0.549085     3.466786
     6.130000     -0.439920     3.482323
     6.130000     -0.330320     3.494422
     6.130000     -0.220395     3.503074
     6.130000     -0.110252     3.508268
     6.130000     -0.000000     3.510000
     6.130000     0.110252     3.508268
     6.130000     0.220395     3.503074
     6.130000     0.330320     3.494422
     6.130000     0.439920     3.482323
     6.130000     0.549085     3.466786
     6.130000     0.657708     3.447828
     6.130000     0.765683     3.425468
     6.130000     0.872902     3.399727
     6.130000     0.979259     3.370631
     6.130000     1.084650     3.338208
     6.130000     1.188970     3.302491
     6.130000     1.292117     3.263515
     6.130000     1.393989     3.221319
     6.130000     1.494485     3.175943
     6.130000     1.593507     3.127433
     6.130000     1.690955     3.075836
     6.130000     1.786735     3.021205
     6.130000     1.880752     2.963591
     6.130000     1.972913     2.903053
     6.130000     2.063126     2.839650
     6.130000     2.151304     2.773444
     6.130000     2.237358     2.704501
     6.130000     2.321205     2.632890
     6.130000     2.402760     2.558680
     6.130000     2.481945     2.481945
     6.130000     2.558680     2.402760
     6.130000     2.632890     2.321205
     6.130000     2.704501     2.237358
     6.130000     2.773444     2.151304
     6.130000     2.839650     2.063126
     6.130000     2.903053     1.972913
     6.130000     2.963591     1.880752
     6.130000     3.021205     1.786735
     6.130000     3.075836     1.690955
     6.130000     3.127433     1.593507
     6.130000     3.175943     1.494485
     6.130000     3.221319     1.393989
     6.130000     3.263515     1.292117
     6.130000     3.302491     1.188970
     6.130000     3.338208     1.084650
     6.130000     3.370631     0.979259
     6.130000     3.399727     0.872902
     6.130000     3.425468     0.765683
     6.130000     3.447828     0.657708
     6.130000     3.466786     0.549085
     6.130000     3.482323     0.439920
     6.130000     3.494422     0.330320
     6.130000     3.503074     0.220395
     6.130000     3.508268     0.110252
     6.130000     3.510000     0.000000
     6.130000     3.508268     -0.110252
     6.130000     3.503074     -0.220395
     6.130000     3.494422     -0.330320
     6.130000     3.482323     -0.439920
     6.130000     3.466786     -0.549085
     6.130000     3.447828     -0.657708
     6.130000     3.425468     -0.765683
     6.130000     3.399727     -0.872902
     6.130000     3.370631     -0.979259
     6.130000     3.338208     -1.084650
     6.130000     3.302491     -1.188970
     6.130000     3.263515     -1.292117
     6.130000     3.221319     -1.393989
     6.130000     3.175943     -1.494485
     6.130000     3.127433     -1.593507
     6.130000     3.075836     -1.690955
     6.130000     3.021205     -1.786735
     6.130000     2.963591     -1.880752
     6.130000     2.903053     -1.972913
     6.130000     2.839650     -2.063126
     6.130000     2.773444     -2.151304
     6.130000     2.704501     -2.237358
     6.130000     2.632890     -2.321205
     6.130000     2.558680     -2.402760
     6.130000     2.481945     -2.481945
     6.130000     2.402760     -2.558680
     6.130000     2.321205     -2.632890
     6.130000     2.237358     -2.704501
     6.130000     2.151304     -2.773444
     6.130000     2.063126     -2.839650
     6.130000     1.972913     -2.903053
     6.130000     1.880752     -2.963591
     6.130000     1.786735     -3.021205
     6.130000     1.690955     -3.075836
     6.130000     1.593507     -3.127433
     6.130000     1.494485     -3.175943
     6.130000     1.393989     -3.221319
     6.130000     1.292117     -3.263515
     6.130000     1.188970     -3.302491
     6.130000     1.084650     -3.338208
     6.130000     0.979259     -3.370631
     6.130000     0.872902     -3.399727
     6.130000     0.765683     -3.425468
     6.130000     0.657708     -3.447828
     6.130000     0.549085     -3.466786
     6.130000     0.439920     -3.482323
     6.130000     0.330320     -3.494422
     6.130000     0.220395     -3.503074
     6.130000     0.110252     -3.508268
     6.310000     0.000000     -3.030000
     6.310000     -0.095175     -3.028505
     6.310000     -0.190255     -3.024021
     6.310000     -0.285148     -3.016553
     6.310000     -0.379760     -3.006108
     6.310000     -0.473996     -2.992696
     6.310000     -0.567765     -2.976330
     6.310000     -0.660974     -2.957028
     6.310000     -0.753530     -2.934807
     6.310000     -0.845343     -2.909690
     6.310000     -0.936321     -2.881701
     6.310000     -1.026376     -2.850869
     6.310000     -1.115417     -2.817223
     6.310000     -1.203358     -2.780797
     6.310000     -1.290111     -2.741626
     6.310000     -1.375591     -2.699750
     6.310000     -1.459714     -2.655209
     6.310000     -1.542395     -2.608048
     6.310000     -1.623555     -2.558314
     6.310000     -1.703113     -2.506054
     6.310000     -1.780989     -2.451321
     6.310000     -1.857108     -2.394170
     6.310000     -1.931395     -2.334655
     6.310000     -2.003775     -2.272837
     6.310000     -2.074178     -2.208775
     6.310000     -2.142534     -2.142534
     6.310000     -2.208775     -2.074178
     6.310000     -2.272837     -2.003775
     6.310000     -2.334655     -1.931395
     6.310000     -2.394170     -1.857108
     6.310000     -2.451321     -1.780989
     6.310000     -2.506054     -1.703113
     6.310000     -2.558314     -1.623555
     6.310000     -2.608048     -1.542395
     6.310000     -2.655209     -1.459714
