3600
     4.310000     -0.938718     2.370930
     4.310000     -0.863782     2.399246
     4.310000     -0.787993     2.425194
     4.310000     -0.711427     2.448749
     4.310000     -0.634159     2.469887
     4.310000     -0.556265     2.488588
     4.310000     -0.477822     2.504832
     4.310000     -0.398908     2.518605
     4.310000     -0.319600     2.529892
     4.310000     -0.239976     2.538683
     4.310000     -0.160116     2.544968
     4.310000     -0.080097     2.548742
     4.310000     -0.000000     2.550000
     4.310000     0.080097     2.548742
     4.310000     0.160116     2.544968
     4.310000     0.239976     2.538683
     4.310000     0.319600     2.529892
     4.310000     0.398908     2.518605
     4.310000     0.477822     2.504832
     4.310000     0.556265     2.488588
     4.310000     0.634159     2.469887
     4.310000     0.711427     2.448749
     4.310000     0.787993     2.425194
     4.310000     0.863782     2.399246
     4.310000     0.938718     2.370930
     4.310000     1.012727     2.340274
     4.310000     1.085737     2.307309
     4.310000     1.157676     2.272067
     4.310000     1.228472     2.234582
     4.310000     1.298056     2.194892
     4.310000     1.366358     2.153036
     4.310000     1.433313     2.109055
     4.310000     1.498852     2.062993
     4.310000     1.562913     2.014895
     4.310000     1.625431     1.964809
     4.310000     1.686345     1.912783
     4.310000     1.745595     1.858870
     4.310000     1.803122     1.803122
     4.310000     1.858870     1.745595
     4.310000     1.912783     1.686345
     4.310000     1.964809     1.625431
     4.310000     2.014895     1.562913
     4.310000     2.062993     1.498852
     4.310000     2.109055     1.433313
     4.310000     2.153036     1.366358
     4.310000     2.194892     1.298056
     4.310000     2.234582     1.228472
     4.310000     2.272067     1.157676
     4.310000     2.307309     1.085737
     4.310000     2.340274     1.012727
     4.310000     2.370930     0.938718
     4.310000     2.399246     0.863782
     4.310000     2.425194     0.787993
     4.310000     2.448749     0.711427
     4.310000     2.469887     0.634159
     4.310000     2.488588     0.556265
     4.310000     2.504832     0.477822
     4.310000     2.518605     0.398908
     4.310000     2.529892     0.319600
     4.310000     2.538683     0.239976
     4.310000     2.544968     0.160116
     4.310000     2.548742     0.080097
     4.310000     2.550000     0.000000
     4.310000     2.548742     -0.080097
     4.310000     2.544968     -0.160116
     4.310000     2.538683     -0.239976
     4.310000     2.529892     -0.319600
     4.310000     2.518605     -0.398908
     4.310000     2.504832     -0.477822
     4.310000     2.488588     -0.556265
     4.310000     2.469887     -0.634159
     4.310000     2.448749     -0.711427
     4.310000     2.425194     -0.787993
     4.310000     2.399246     -0.863782
     4.310000     2.370930     -0.938718
     4.310000     2.340274     -1.012727
     4.310000     2.307309     -1.085737
     4.310000     2.272067     -1.157676
     4.310000     2.234582     -1.228472
     4.310000     2.194892     -1.298056
     4.310000     2.153036     -1.366358
     4.310000     2.109055     -1.433313
     4.310000     2.062993     -1.498852
     4.310000     2.014895     -1.562913
     4.310000     1.964809     -1.625431
     4.310000     1.912783     -1.686345
     4.310000     1.858870     -1.745595
     4.310000     1.803122     -1.803122
     4.310000     1.745595     -1.858870
     4.310000     1.686345     -1.912783
     4.310000     1.625431     -1.964809
     4.310000     1.562913     -2.014895
     4.310000     1.498852     -2.062993
     4.310000     1.433313     -2.109055
     4.310000     1.366358     -2.153036
     4.310000     1.298056     -2.194892
     4.310000     1.228472     -2.234582
     4.310000     1.157676     -2.272067
     4.310000     1.085737     -2.307309
     4.310000     1.012727     -2.340274
     4.310000     0.938718     -2.370930
     4.310000     0.863782     -2.399246
     4.310000     0.787993     -2.425194
     4.310000     0.711427     -2.448749
     4.310000     0.634159     -2.469887
     4.310000     0.556265     -2.488588
     4.310000     0.477822     -2.504832
     4.310000     0.398908     -2.518605
     4.310000     0.319600     -2.529892
     4.310000     0.239976     -2.538683
     4.310000     0.160116     -2.544968
     4.310000     0.080097     -2.548742
     4.840000     0.000000     -3.040000
     4.840000     -0.095489     -3.038500
     4.840000     -0.190883     -3.034001
     4.840000     -0.286089     -3.026508
     4.840000     -0.381013     -3.016029
     4.840000     -0.475561     -3.002573
     4.840000     -0.569639     -2.986153
     4.840000     -0.663155     -2.966787
     4.840000     -0.756017     -2.944493
     4.840000     -0.848133     -2.919293
     4.840000     -0.939412     -2.891212
     4.840000     -1.029763     -2.860278
     4.840000     -1.119099     -2.826521
     4.840000     -1.207330     -2.789974
     4.840000     -1.294369     -2.750674
     4.840000     -1.380131     -2.708660
     4.840000     -1.464531     -2.663972
     4.840000     -1.547486     -2.616656
     4.840000     -1.628913     -2.566757
     4.840000     -1.708733     -2.514325
     4.840000     -1.786867     -2.459412
     4.840000     -1.863237     -2.402071
     4.840000     -1.937769     -2.342360
     4.840000     -2.010388     -2.280338
     4.840000     -2.081023     -2.216065
     4.840000     -2.149605     -2.149605
     4.840000     -2.216065     -2.081023
     4.840000     -2.280338     -2.010388
     4.840000     -2.342360     -1.937769
     4.840000     -2.402071     -1.863237
     4.840000     -2.459412     -1.786867
     4.840000     -2.514325     -1.708733
     4.840000     -2.566757     -1.628913
     4.840000     -2.616656     -1.547486
     4.840000     -2.663972     -1.464531
     4.840000     -2.708660     -1.380131
     4.840000     -2.750674     -1.294369
     4.840000     -2.789974     -1.207330
     4.840000     -2.826521     -1.119099
     4.840000     -2.860278     -1.029763
     4.840000     -2.891212     -0.939412
     4.840000     -2.919293     -0.848133
     4.840000     -2.944493     -0.756017
     4.840000     -2.966787     -0.663155
     4.840000     -2.986153     -0.569639
     4.840000     -3.002573     -0.475561
     4.840000     -3.016029     -0.381013
     4.840000     -3.026508     -0.286089
     4.840000     -3.034001     -0.190883
     4.840000     -3.038500     -0.095489
     4.840000     -3.040000     -0.000000
     4.840000     -3.038500     0.095489
     4.840000     -3.034001     0.190883
     4.840000     -3.026508     0.286089
     4.840000     -3.016029     0.381013
     4.840000     -3.002573     0.475561
     4.840000     -2.986153     0.569639
     4.840000     -2.966787     0.663155
     4.840000     -2.944493     0.756017
     4.840000     -2.919293     0.848133
     4.840000     -2.891212     0.939412
     4.840000     -2.860278     1.029763
     4.840000     -2.826521     1.119099
     4.840000     -2.789974     1.207330
     4.840000     -2.750674     1.294369
     4.840000     -2.708660     1.380131
     4.840000     -2.663972     1.464531
     4.840000     -2.616656     1.547486
     4.840000     -2.566757     1.628913
     4.840000     -2.514325     1.708733
     4.840000     -2.459412     1.786867
     4.840000     -2.402071     1.863237
     4.840000     -2.342360     1.937769
     4.840000     -2.280338     2.010388
     4.840000     -2.216065     2.081023
     4.840000     -2.149605     2.149605
     4.840000     -2.081023     2.216065
     4.840000     -2.010388     2.280338
     4.840000     -1.937769     2.342360
     4.840000     -1.863237     2.402071
     4.840000     -1.786867     2.459412
     4.840000     -1.708733     2.514325
     4.840000     -1.628913     2.566757
     4.840000     -1.547486     2.616656
     4.840000     -1.464531     2.663972
     4.840000     -1.380131     2.708660
     4.840000     -1.294369     2.750674
     4.840000     -1.207330     2.789974
     4.840000     -1.119099     2.826521
     4.840000     -1.029763     2.860278
     4.840000     -0.939412     2.891212
     4.840000     -0.848133     2.919293
     4.840000     -0.756017     2.944493
     4.840000     -0.663155     2.966787
     4.840000     -0.569639     2.986153
     4.840000     -0.475561     3.002573
     4.840000     -0.381013     3.016029
     4.840000     -0.286089     3.026508
     4.840000     -0.190883     3.034001
     4.840000     -0.095489     3.038500
     4.840000     -0.000000     3.040000
     4.840000     0.095489     3.038500
     4.840000     0.190883     3.034001
     4.840000     0.286089     3.026508
     4.840000     0.381013     3.016029
     4.840000     0.475561     3.002573
     4.840000     0.569639     2.986153
     4.840000     0.663155     2.966787
     4.840000     0.756017     2.944493
     4.840000     0.848133     2.919293
     4.840000     0.939412     2.891212
     4.840000     1.029763     2.860278
     4.840000     1.119099     2.826521
     4.840000     1.207330     2.789974
     4.840000     1.294369     2.750674
     4.840000     1.380131     2.708660
     4.840000     1.464531     2.663972
     4.840000     1.547486     2.616656
     4.840000     1.628913     2.566757
     4.840000     1.708733     2.514325
     4.840000     1.786867     2.459412
     4.840000     1.863237     2.402071
     4.840000     1.937769     2.342360
     4.840000     2.010388     2.280338
     4.840000     2.081023     2.216065
     4.840000     2.149605     2.149605
     4.840000     2.216065     2.081023
     4.840000     2.280338     2.010388
     4.840000     2.342360     1.937769
     4.840000     2.402071     1.863237
     4.840000     2.459412     1.786867
     4.840000     2.514325     1.708733
     4.840000     2.566757     1.628913
     4.840000     2.616656     1.547486
     4.840000     2.663972     1.464531
     4.840000     2.708660     1.380131
     4.840000     2.750674     1.294369
     4.840000     2.789974     1.207330
     4.840000     2.826521     1.119099
     4.840000     2.860278     1.029763
     4.840000     2.891212     0.939412
     4.840000     2.919293     0.848133
     4.840000     2.944493     0.756017
     4.840000     2.966787     0.663155
     4.840000     2.986153     0.569639
     4.840000     3.002573     0.475561
     4.840000     3.016029     0.381013
     4.840000     3.026508     0.286089
     4.840000     3.034001     0.190883
     4.840000     3.038500     0.095489
     4.840000     3.040000     0.000000
     4.840000     3.038500     -0.095489
     4.840000     3.034001     -0.190883
     4.840000     3.026508     -0.286089
     4.840000     3.016029     -0.381013
     4.840000     3.002573     -0.475561
     4.840000     2.986153     -0.569639
     4.840000     2.966787     -0.663155
     4.840000     2.944493     -0.756017
     4.840000     2.919293     -0.848133
     4.840000     2.891212     -0.939412
     4.840000     2.860278     -1.029763
     4.840000     2.826521     -1.119099
     4.840000     2.789974     -1.207330
     4.840000     2.750674     -1.294369
     4.840000     2.708660     -1.380131
     4.840000     2.663972     -1.464531
     4.840000     2.616656     -1.547486
     4.840000     2.566757     -1.628913
     4.840000     2.514325     -1.708733
     4.840000     2.459412     -1.786867
     4.840000     2.402071     -1.863237
     4.840000     2.342360     -1.937769
     4.840000     2.280338     -2.010388
     4.840000     2.216065     -2.081023
     4.840000     2.149605     -2.149605
     4.840000     2.081023     -2.216065
     4.840000     2.010388     -2.280338
     4.840000     1.937769     -2.342360
     4.840000     1.863237     -2.402071
     4.840000     1.786867     -2.459412
     4.840000     1.708733     -2.514325
     4.840000     1.628913     -2.566757
     4.840000     1.547486     -2.616656
     4.840000     1.464531     -2.663972
     4.840000     1.380131     -2.708660
     4.840000     1.294369     -2.750674
     4.840000     1.207330     -2.789974
     4.840000     1.119099     -2.826521
     4.840000     1.029763     -2.860278
     4.840000     0.939412     -2.891212
     4.840000     0.848133     -2.919293
     4.840000     0.756017     -2.944493
     4.840000     0.663155     -2.966787
     4.840000     0.569639     -2.986153
     4.840000     0.475561     -3.002573
     4.840000     0.381013     -3.016029
     4.840000     0.286089     -3.026508
     4.840000     0.190883     -3.034001
     4.840000     0.095489     -3.038500
     5.420000     0.000000     -3.240000
     5.420000     -0.101771     -3.238401
     5.420000     -0.203441     -3.233607
     5.420000     -0.304911     -3.225621
     5.420000     -0.406080     -3.214452
     5.420000     -0.506848     -3.200110
     5.420000     -0.607115     -3.182611
     5.420000     -0.706784     -3.161970
     5.420000     -0.805755     -3.138209
     5.420000     -0.903931     -3.111352
     5.420000     -1.001215     -3.081423
     5.420000     -1.097511     -3.048454
     5.420000     -1.192724     -3.012476
     5.420000     -1.286759     -2.973525
     5.420000     -1.379525     -2.931640
     5.420000     -1.470929     -2.886861
     5.420000     -1.560882     -2.839234
     5.420000     -1.649294     -2.788804
     5.420000     -1.736079     -2.735622
     5.420000     -1.821150     -2.679741
     5.420000     -1.904424     -2.621215
     5.420000     -1.985819     -2.560102
     5.420000     -2.065254     -2.496463
     5.420000     -2.142650     -2.430360
     5.420000     -2.217933     -2.361858
     5.420000     -2.291026     -2.291026
     5.420000     -2.361858     -2.217933
     5.420000     -2.430360     -2.142650
     5.420000     -2.496463     -2.065254
     5.420000     -2.560102     -1.985819
     5.420000     -2.621215     -1.904424
     5.420000     -2.679741     -1.821150
     5.420000     -2.735622     -1.736079
     5.420000     -2.788804     -1.649294
     5.420000     -2.839234     -1.560882
     5.420000     -2.886861     -1.470929
     5.420000     -2.931640     -1.379525
     5.420000     -2.973525     -1.286759
     5.420000     -3.012476     -1.192724
     5.420000     -3.048454     -1.097511
     5.420000     -3.081423     -1.001215
     5.420000     -3.111352     -0.903931
     5.420000     -3.138209     -0.805755
     5.420000     -3.161970     -0.706784
     5.420000     -3.182611     -0.607115
     5.420000     -3.200110     -0.506848
     5.420000     -3.214452     -0.406080
     5.420000     -3.225621     -0.304911
     5.420000     -3.233607     -0.203441
     5.420000     -3.238401     -0.101771
     5.420000     -3.240000     -0.000000
     5.420000     -3.238401     0.101771
     5.420000     -3.233607     0.203441
     5.420000     -3.225621     0.304911
     5.420000     -3.214452     0.406080
     5.420000     -3.200110     0.506848
     5.420000     -3.182611     0.607115
     5.420000     -3.161970     0.706784
     5.420000     -3.138209     0.805755
     5.420000     -3.111352     0.903931
     5.420000     -3.081423     1.001215
     5.420000     -3.048454     1.097511
     5.420000     -3.012476     1.192724
     5.420000     -2.973525     1.286759
     5.420000     -2.931640     1.379525
     5.420000     -2.886861     1.470929
     5.420000     -2.839234     1.560882
     5.420000     -2.788804     1.649294
     5.420000     -2.735622     1.736079
     5.420000     -2.679741     1.821150
     5.420000     -2.621215     1.904424
     5.420000     -2.560102     1.985819
     5.420000     -2.496463     2.065254
     5.420000     -2.430360     2.142650
     5.420000     -2.361858     2.217933
     5.420000     -2.291026     2.291026
     5.420000     -2.217933     2.361858
     5.420000     -2.142650     2.430360
     5.420000     -2.065254     2.496463
     5.420000     -1.985819     2.560102
     5.420000     -1.904424     2.621215
     5.420000     -1.821150     2.679741
     5.420000     -1.736079     2.735622
     5.420000     -1.649294     2.788804
     5.420000     -1.560882     2.839234
     5.420000     -1.470929     2.886861
     5.420000     -1.379525     2.931640
     5.420000     -1.286759     2.973525
     5.420000     -1.192724     3.012476
     5.420000     -1.097511     3.048454
     5.420000     -1.001215     3.081423
     5.420000     -0.903931     3.111352
     5.420000     -0.805755     3.138209
     5.420000     -0.706784     3.161970
     5.420000     -0.607115     3.182611
     5.420000     -0.506848     3.200110
     5.420000     -0.406080     3.214452
     5.420000     -0.304911     3.225621
     5.420000     -0.203441     3.233607
     5.420000     -0.101771     3.238401
     5.420000     -0.000000     3.240000
     5.420000     0.101771     3.238401
     5.420000     0.203441     3.233607
     5.420000     0.304911     3.225621
     5.420000     0.406080     3.214452
     5.420000     0.506848     3.200110
     5.420000     0.607115     3.182611
     5.420000     0.706784     3.161970
     5.420000     0.805755     3.138209
     5.420000     0.903931     3.111352
     5.420000     1.001215     3.081423
     5.420000     1.097511     3.048454
     5.420000     1.192724     3.012476
     5.420000     1.286759     2.973525
     5.420000     1.379525     2.931640
     5.420000     1.470929     2.886861
     5.420000     1.560882     2.839234
     5.420000     1.649294     2.788804
     5.420000     1.736079     2.735622
     5.420000     1.821150     2.679741
     5.420000     1.904424     2.621215
     5.420000     1.985819     2.560102
     5.420000     2.065254     2.496463
     5.420000     2.142650     2.430360
     5.420000     2.217933     2.361858
     5.420000     2.291026     2.291026
     5.420000     2.361858     2.217933
     5.420000     2.430360     2.142650
     5.420000     2.496463     2.065254
     5.420000     2.560102     1.985819
     5.420000     2.621215     1.904424
     5.420000     2.679741     1.821150
     5.420000     2.735622     1.736079
     5.420000     2.788804     1.649294
     5.420000     2.839234     1.560882
     5.420000     2.886861     1.470929
     5.420000     2.931640     1.379525
     5.420000     2.973525     1.286759
     5.420000     3.012476     1.192724
     5.420000     3.048454     1.097511
     5.420000     3.081423     1.001215
     5.420000     3.111352     0.903931
     5.420000     3.138209     0.805755
     5.420000     3.161970     0.706784
     5.420000     3.182611     0.607115
     5.420000     3.200110     0.506848
     5.420000     3.214452     0.406080
     5.420000     3.225621     0.304911
     5.420000     3.233607     0.203441
     5.420000     3.238401     0.101771
     5.420000     3.240000     0.000000
     5.420000     3.238401     -0.101771
     5.420000     3.233607     -0.203441
     5.420000     3.225621     -0.304911
     5.420000     3.214452     -0.406080
     5.420000     3.200110     -0.506848
     5.420000     3.182611     -0.607115
     5.420000     3.161970     -0.706784
     5.420000     3.138209     -0.805755
     5.420000     3.111352     -0.903931
     5.420000     3.081423     -1.001215
     5.420000     3.048454     -1.097511
     5.420000     3.012476     -1.192724
     5.420000     2.973525     -1.286759
     5.420000     2.931640     -1.379525
     5.420000     2.886861     -1.470929
     5.420000     2.839234     -1.560882
     5.420000     2.788804     -1.649294
     5.420000     2.735622     -1.736079
     5.420000     2.679741     -1.821150
     5.420000     2.621215     -1.904424
     5.420000     2.560102     -1.985819
     5.420000     2.496463     -2.065254
     5.420000     2.430360     -2.142650
     5.420000     2.361858     -2.217933
     5.420000     2.291026     -2.291026
     5.420000     2.217933     -2.361858
     5.420000     2.142650     -2.430360
     5.420000     2.065254     -2.496463
     5.420000     1.985819     -2.560102
     5.420000     1.904424     -2.621215
     5.420000     1.821150     -2.679741
     5.420000     1.736079     -2.735622
     5.420000     1.649294     -2.788804
     5.420000     1.560882     -2.839234
     5.420000     1.470929     -2.886861
     5.420000     1.379525     -2.931640
     5.420000     1.286759     -2.973525
     5.420000     1.192724     -3.012476
     5.420000     1.097511     -3.048454
     5.420000     1.001215     -3.081423
     5.420000     0.903931     -3.111352
     5.420000     0.805755     -3.138209
     5.420000     0.706784     -3.161970
     5.420000     0.607115     -3.182611
     5.420000     0.506848     -3.200110
     5.420000     0.406080     -3.214452
     5.420000     0.304911     -3.225621
     5.420000     0.203441     -3.233607
     5.420000     0.101771     -3.238401
     6.070000     0.000000     -2.880000
     6.070000     -0.090463     -2.878579
     6.070000     -0.180837     -2.874317
     6.070000     -0.271032     -2.867218
     6.070000     -0.360960     -2.857290
     6.070000     -0.450531     -2.844542
     6.070000     -0.539658     -2.828987
     6.070000     -0.628253     -2.810640
     6.070000     -0.716227     -2.789520
     6.070000     -0.803494     -2.765646
     6.070000     -0.889969     -2.739043
     6.070000     -0.975565     -2.709737
     6.070000     -1.060199     -2.677756
     6.070000     -1.143786     -2.643133
     6.070000     -1.226244     -2.605902
     6.070000     -1.307493     -2.566099
     6.070000     -1.387451     -2.523763
     6.070000     -1.466039     -2.478937
     6.070000     -1.543181     -2.431664
     6.070000     -1.618800     -2.381992
     6.070000     -1.692822     -2.329969
     6.070000     -1.765172     -2.275646
     6.070000     -1.835781     -2.219078
     6.070000     -1.904578     -2.160320
     6.070000     -1.971496     -2.099430
     6.070000     -2.036468     -2.036468
     6.070000     -2.099430     -1.971496
     6.070000     -2.160320     -1.904578
     6.070000     -2.219078     -1.835781
     6.070000     -2.275646     -1.765172
     6.070000     -2.329969     -1.692822
     6.070000     -2.381992     -1.618800
     6.070000     -2.431664     -1.543181
     6.070000     -2.478937     -1.466039
     6.070000     -2.523763     -1.387451
     6.070000     -2.566099     -1.307493
     6.070000     -2.605902     -1.226244
     6.070000     -2.643133     -1.143786
     6.070000     -2.677756     -1.060199
     6.070000     -2.709737     -0.975565
     6.070000     -2.739043     -0.889969
     6.070000     -2.765646     -0.803494
     6.070000     -2.789520     -0.716227
     6.070000     -2.810640     -0.628253
     6.070000     -2.828987     -0.539658
     6.070000     -2.844542     -0.450531
     6.070000     -2.857290     -0.360960
     6.070000     -2.867218     -0.271032
     6.070000     -2.874317     -0.180837
     6.070000     -2.878579     -0.090463
     6.070000     -2.880000     -0.000000
     6.070000     -2.878579     0.090463
     6.070000     -2.874317     0.180837
     6.070000     -2.867218     0.271032
     6.070000     -2.857290     0.360960
     6.070000     -2.844542     0.450531
     6.070000     -2.828987     0.539658
     6.070000     -2.810640     0.628253
     6.070000     -2.789520     0.716227
     6.070000     -2.765646     0.803494
     6.070000     -2.739043     0.889969
     6.070000     -2.709737     0.975565
     6.070000     -2.677756     1.060199
     6.070000     -2.643133     1.143786
     6.070000     -2.605902     1.226244
     6.070000     -2.566099     1.307493
     6.070000     -2.523763     1.387451
     6.070000     -2.478937     1.466039
     6.070000     -2.431664     1.543181
     6.070000     -2.381992     1.618800
     6.070000     -2.329969     1.692822
     6.070000     -2.275646     1.765172
     6.070000     -2.219078     1.835781
     6.070000     -2.160320     1.904578
     6.070000     -2.099430     1.971496
     6.070000     -2.036468     2.036468
     6.070000     -1.971496     2.099430
     6.070000     -1.904578     2.160320
     6.070000     -1.835781     2.219078
     6.070000     -1.765172     2.275646
     6.070000     -1.692822     2.329969
     6.070000     -1.618800     2.381992
     6.070000     -1.543181     2.431664
     6.070000     -1.466039     2.478937
     6.070000     -1.387451     2.523763
     6.070000     -1.307493     2.566099
     6.070000     -1.226244     2.605902
     6.070000     -1.143786     2.643133
     6.070000     -1.060199     2.677756
     6.070000     -0.975565     2.709737
     6.070000     -0.889969     2.739043
     6.070000     -0.803494     2.765646
     6.070000     -0.716227     2.789520
     6.070000     -0.628253     2.810640
     6.070000     -0.539658     2.828987
     6.070000     -0.450531     2.844542
     6.070000     -0.360960     2.857290
     6.070000     -0.271032     2.867218
     6.070000     -0.180837     2.874317
     6.070000     -0.090463     2.878579
     6.070000     -0.000000     2.880000
     6.070000     0.090463     2.878579
     6.070000     0.180837     2.874317
     6.070000     0.271032     2.867218
     6.070000     0.360960     2.857290
     6.070000     0.450531     2.844542
     6.070000     0.539658     2.828987
     6.070000     0.628253     2.810640
     6.070000     0.716227     2.789520
     6.070000     0.803494     2.765646
     6.070000     0.889969     2.739043
     6.070000     0.975565     2.709737
     6.070000     1.060199     2.677756
     6.070000     1.143786     2.643133
     6.070000     1.226244     2.605902
     6.070000     1.307493     2.566099
     6.070000     1.387451     2.523763
     6.070000     1.466039     2.478937
     6.070000     1.543181     2.431664
     6.070000     1.618800     2.381992
     6.070000     1.692822     2.329969
     6.070000     1.765172     2.275646
     6.070000     1.835781     2.219078
     6.070000     1.904578     2.160320
     6.070000     1.971496     2.099430
     6.070000     2.036468     2.036468
     6.070000     2.099430     1.971496
     6.070000     2.160320     1.904578
     6.070000     2.219078     1.835781
     6.070000     2.275646     1.765172
     6.070000     2.329969     1.692822
     6.070000     2.381992     1.618800
     6.070000     2.431664     1.543181
     6.070000     2.478937     1.466039
     6.070000     2.523763     1.387451
     6.070000     2.566099     1.307493
     6.070000     2.605902     1.226244
     6.070000     2.643133     1.143786
     6.070000     2.677756     1.060199
     6.070000     2.709737     0.975565
     6.070000     2.739043     0.889969
     6.070000     2.765646     0.803494
     6.070000     2.789520     0.716227
     6.070000     2.810640     0.628253
     6.070000     2.828987     0.539658
     6.070000     2.844542     0.450531
     6.070000     2.857290     0.360960
     6.070000     2.867218     0.271032
     6.070000     2.874317     0.180837
     6.070000     2.878579     0.090463
     6.070000     2.880000     0.000000
     6.070000     2.878579     -0.090463
     6.070000     2.874317     -0.180837
     6.070000     2.867218     -0.271032
     6.070000     2.857290     -0.360960
     6.070000     2.844542     -0.450531
     6.070000     2.828987     -0.539658
     6.070000     2.810640     -0.628253
     6.070000     2.789520     -0.716227
     6.070000     2.765646     -0.803494
     6.070000     2.739043     -0.889969
     6.070000     2.709737     -0.975565
     6.070000     2.677756     -1.060199
     6.070000     2.643133     -1.143786
     6.070000     2.605902     -1.226244
     6.070000     2.566099     -1.307493
     6.070000     2.523763     -1.387451
     6.070000     2.478937     -1.466039
     6.070000     2.431664     -1.543181
     6.070000     2.381992     -1.618800
     6.070000     2.329969     -1.692822
     6.070000     2.275646     -1.765172
     6.070000     2.219078     -1.835781
     6.070000     2.160320     -1.904578
     6.070000     2.099430     -1.971496
     6.070000     2.036468     -2.036468
     6.070000     1.971496     -2.099430
     6.070000     1.904578     -2.160320
     6.070000     1.835781     -2.219078
     6.070000     1.765172     -2.275646
     6.070000     1.692822     -2.329969
     6.070000     1.618800     -2.381992
     6.070000     1.543181     -2.431664
     6.070000     1.466039     -2.478937
     6.070000     1.387451     -2.523763
     6.070000     1.307493     -2.566099
     6.070000     1.226244     -2.605902
     6.070000     1.143786     -2.643133
     6.070000     1.060199     -2.677756
     6.070000     0.975565     -2.709737
     6.070000     0.889969     -2.739043
     6.070000     0.803494     -2.765646
     6.070000     0.716227     -2.789520
     6.070000     0.628253     -2.810640
     6.070000     0.539658     -2.828987
     6.070000     0.450531     -2.844542
     6.070000     0.360960     -2.857290
     6.070000     0.271032     -2.867218
     6.070000     0.180837     -2.874317
     6.070000     0.090463     -2.878579
     6.260000     0.000000     -2.310000
     6.260000     -0.072559     -2.308860
     6.260000     -0.145046     -2.305442
     6.260000     -0.217390     -2.299748
     6.260000     -0.289520     -2.291785
     6.260000     -0.361364     -2.281560
     6.260000     -0.432851     -2.269084
     6.260000     -0.503911     -2.254368
     6.260000     -0.574474     -2.237427
     6.260000     -0.644469     -2.218278
     6.260000     -0.713829     -2.196941
     6.260000     -0.782485     -2.173435
     6.260000     -0.850368     -2.147784
     6.260000     -0.917412     -2.120013
     6.260000     -0.983550     -2.090150
     6.260000     -1.048718     -2.058225
     6.260000     -1.112851     -2.024268
     6.260000     -1.175886     -1.988314
     6.260000     -1.237760     -1.950398
     6.260000     -1.298413     -1.910556
     6.260000     -1.357784     -1.868829
     6.260000     -1.415815     -1.825258
     6.260000     -1.472449     -1.779886
     6.260000     -1.527630     -1.732757
     6.260000     -1.581304     -1.683918
     6.260000     -1.633417     -1.633417
     6.260000     -1.683918     -1.581304
     6.260000     -1.732757     -1.527630
     6.260000     -1.779886     -1.472449
     6.260000     -1.825258     -1.415815
     6.260000     -1.868829     -1.357784
     6.260000     -1.910556     -1.298413
     6.260000     -1.950398     -1.237760
     6.260000     -1.988314     -1.175886
     6.260000     -2.024268     -1.112851
     6.260000     -2.058225     -1.048718
     6.260000     -2.090150     -0.983550
     6.260000     -2.120013     -0.917412
     6.260000     -2.147784     -0.850368
     6.260000     -2.173435     -0.782485
     6.260000     -2.196941     -0.713829
     6.260000     -2.218278     -0.644469
     6.260000     -2.237427     -0.574474
     6.260000     -2.254368     -0.503911
     6.260000     -2.269084     -0.432851
     6.260000     -2.281560     -0.361364
     6.260000     -2.291785     -0.289520
     6.260000     -2.299748     -0.217390
     6.260000     -2.305442     -0.145046
     6.260000     -2.308860     -0.072559
     6.260000     -2.310000     -0.000000
     6.260000     -2.308860     0.072559
     6.260000     -2.305442     0.145046
     6.260000     -2.299748     0.217390
     6.260000     -2.291785     0.289520
     6.260000     -2.281560     0.361364
     6.260000     -2.269084     0.432851
     6.260000     -2.254368     0.503911
     6.260000     -2.237427     0.574474
     6.260000     -2.218278     0.644469
     6.260000     -2.196941     0.713829
     6.260000     -2.173435     0.782485
     6.260000     -2.147784     0.850368
     6.260000     -2.120013     0.917412
     6.260000     -2.090150     0.983550
     6.260000     -2.058225     1.048718
     6.260000     -2.024268     1.112851
     6.260000     -1.988314     1.175886
     6.260000     -1.950398     1.237760
     6.260000     -1.910556     1.298413
     6.260000     -1.868829     1.357784
     6.260000     -1.825258     1.415815
     6.260000     -1.779886     1.472449
     6.260000     -1.732757     1.527630
     6.260000     -1.683918     1.581304
     6.260000     -1.633417     1.633417
     6.260000     -1.581304     1.683918
     6.260000     -1.527630     1.732757
     6.260000     -1.472449     1.779886
     6.260000     -1.415815     1.825258
     6.260000     -1.357784     1.868829
     6.260000     -1.298413     1.910556
     6.260000     -1.237760     1.950398
     6.260000     -1.175886     1.988314
     6.260000     -1.112851     2.024268
     6.260000     -1.048718     2.058225
     6.260000     -0.983550     2.090150
     6.260000     -0.917412     2.120013
     6.260000     -0.850368     2.147784
     6.260000     -0.782485     2.173435
     6.260000     -0.713829     2.196941
     6.260000     -0.644469     2.218278
     6.260000     -0.574474     2.237427
     6.260000     -0.503911     2.254368
     6.260000     -0.432851     2.269084
     6.260000     -0.361364     2.281560
     6.260000     -0.289520     2.291785
     6.260000     -0.217390     2.299748
     6.260000     -0.145046     2.305442
     6.260000     -0.072559     2.308860
     6.260000     -0.000000     2.310000
     6.260000     0.072559     2.308860
     6.260000     0.145046     2.305442
     6.260000     0.217390     2.299748
     6.260000     0.289520     2.291785
     6.260000     0.361364     2.281560
     6.260000     0.432851     2.269084
     6.260000     0.503911     2.254368
     6.260000     0.574474     2.237427
     6.260000     0.644469     2.218278
     6.260000     0.713829     2.196941
     6.260000     0.782485     2.173435
     6.260000     0.850368     2.147784
     6.260000     0.917412     2.120013
     6.260000     0.983550     2.090150
     6.260000     1.048718     2.058225
     6.260000     1.112851     2.024268
     6.260000     1.175886     1.988314
     6.260000     1.237760     1.950398
     6.260000     1.298413     1.910556
     6.260000     1.357784     1.868829
     6.260000     1.415815     1.825258
     6.260000     1.472449     1.779886
     6.260000     1.527630     1.732757
     6.260000     1.581304     1.683918
     6.260000     1.633417     1.633417
     6.260000     1.683918     1.581304
     6.260000     1.732757     1.527630
     6.260000     1.779886     1.472449
     6.260000     1.825258     1.415815
     6.260000     1.868829     1.357784
     6.260000     1.910556     1.298413
     6.260000     1.950398     1.237760
     6.260000     1.988314     1.175886
     6.260000     2.024268     1.112851
     6.260000     2.058225     1.048718
     6.260000     2.090150     0.983550
     6.260000     2.120013     0.917412
     6.260000     2.147784     0.850368
     6.260000     2.173435     0.782485
     6.260000     2.196941     0.713829
     6.260000     2.218278     0.644469
     6.260000     2.237427     0.574474
     6.260000     2.254368     0.503911
     6.260000     2.269084     0.432851
     6.260000     2.281560     0.361364
     6.260000     2.291785     0.289520
     6.260000     2.299748     0.217390
     6.260000     2.305442     0.145046
     6.260000     2.308860     0.072559
     6.260000     2.310000     0.000000
     6.260000     2.308860     -0.072559
     6.260000     2.305442     -0.145046
     6.260000     2.299748     -0.217390
     6.260000     2.291785     -0.289520
     6.260000     2.281560     -0.361364
     6.260000     2.269084     -0.432851
     6.260000     2.254368     -0.503911
     6.260000     2.237427     -0.574474
     6.260000     2.218278     -0.644469
     6.260000     2.196941     -0.713829
     6.260000     2.173435     -0.782485
     6.260000     2.147784     -0.850368
     6.260000     2.120013     -0.917412
     6.260000     2.090150     -0.983550
     6.260000     2.058225     -1.048718
     6.260000     2.024268     -1.112851
     6.260000     1.988314     -1.175886
     6.260000     1.950398     -1.237760
     6.260000     1.910556     -1.298413
     6.260000     1.868829     -1.357784
     6.260000     1.825258     -1.415815
     6.260000     1.779886     -1.472449
     6.260000     1.732757     -1.527630
     6.260000     1.683918     -1.581304
     6.260000     1.633417     -1.633417
     6.260000     1.581304     -1.683918
     6.260000     1.527630     -1.732757
     6.260000     1.472449     -1.779886
     6.260000     1.415815     -1.825258
     6.260000     1.357784     -1.868829
     6.260000     1.298413     -1.910556
     6.260000     1.237760     -1.950398
     6.260000     1.175886     -1.988314
     6.260000     1.112851     -2.024268
     6.260000     1.048718     -2.058225
     6.260000     0.983550     -2.090150
     6.260000     0.917412     -2.120013
     6.260000     0.850368     -2.147784
     6.260000     0.782485     -2.173435
     6.260000     0.713829     -2.196941
     6.260000     0.644469     -2.218278
     6.260000     0.574474     -2.237427
     6.260000     0.503911     -2.254368
     6.260000     0.432851     -2.269084
     6.260000     0.361364     -2.281560
     6.260000     0.289520     -2.291785
     6.260000     0.217390     -2.299748
     6.260000     0.145046     -2.305442
     6.260000     0.072559     -2.308860
     6.330000     0.000000     -1.590000
     6.330000     -0.049943     -1.589215
     6.330000     -0.099837     -1.586862
     6.330000     -0.149632     -1.582944
     6.330000     -0.199280     -1.577462
     6.330000     -0.248731     -1.570424
     6.330000     -0.297936     -1.561837
     6.330000     -0.346848     -1.551708
     6.330000     -0.395417     -1.540047
     6.330000     -0.443596     -1.526867
     6.330000     -0.491337     -1.512180
     6.330000     -0.538593     -1.496000
     6.330000     -0.585318     -1.478345
     6.330000     -0.631465     -1.459230
     6.330000     -0.676989     -1.438675
     6.330000     -0.721845     -1.416700
     6.330000     -0.765988     -1.393328
     6.330000     -0.809376     -1.368580
     6.330000     -0.851965     -1.342481
     6.330000     -0.893713     -1.315058
     6.330000     -0.934579     -1.286337
     6.330000     -0.974522     -1.256346
     6.330000     -1.013504     -1.225116
     6.330000     -1.051486     -1.192677
     6.330000     -1.088430     -1.159060
     6.330000     -1.124300     -1.124300
     6.330000     -1.159060     -1.088430
     6.330000     -1.192677     -1.051486
     6.330000     -1.225116     -1.013504
     6.330000     -1.256346     -0.974522
     6.330000     -1.286337     -0.934579
     6.330000     -1.315058     -0.893713
     6.330000     -1.342481     -0.851965
     6.330000     -1.368580     -0.809376
     6.330000     -1.393328     -0.765988
     6.330000     -1.416700     -0.721845
     6.330000     -1.438675     -0.676989
     6.330000     -1.459230     -0.631465
     6.330000     -1.478345     -0.585318
     6.330000     -1.496000     -0.538593
     6.330000     -1.512180     -0.491337
     6.330000     -1.526867     -0.443596
     6.330000     -1.540047     -0.395417
     6.330000     -1.551708     -0.346848
     6.330000     -1.561837     -0.297936
     6.330000     -1.570424     -0.248731
     6.330000     -1.577462     -0.199280
     6.330000     -1.582944     -0.149632
     6.330000     -1.586862     -0.099837
     6.330000     -1.589215     -0.049943
     6.330000     -1.590000     -0.000000
     6.330000     -1.589215     0.049943
     6.330000     -1.586862     0.099837
     6.330000     -1.582944     0.149632
     6.330000     -1.577462     0.199280
     6.330000     -1.570424     0.248731
     6.330000     -1.561837     0.297936
     6.330000     -1.551708     0.346848
     6.330000     -1.540047     0.395417
     6.330000     -1.526867     0.443596
     6.330000     -1.512180     0.491337
     6.330000     -1.496000     0.538593
     6.330000     -1.478345     0.585318
     6.330000     -1.459230     0.631465
     6.330000     -1.438675     0.676989
     6.330000     -1.416700     0.721845
     6.330000     -1.393328     0.765988
     6.330000     -1.368580     0.809376
     6.330000     -1.342481     0.851965
     6.330000     -1.315058     0.893713
     6.330000     -1.286337     0.934579
     6.330000     -1.256346     0.974522
     6.330000     -1.225116     1.013504
     6.330000     -1.192677     1.051486
     6.330000     -1.159060     1.088430
     6.330000     -1.124300     1.124300
     6.330000     -1.088430     1.159060
     6.330000     -1.051486     1.192677
     6.330000     -1.013504     1.225116
     6.330000     -0.974522     1.256346
     6.330000     -0.934579     1.286337
     6.330000     -0.893713     1.315058
     6.330000     -0.851965     1.342481
     6.330000     -0.809376     1.368580
     6.330000     -0.765988     1.393328
     6.330000     -0.721845     1.416700
     6.330000     -0.676989     1.438675
     6.330000     -0.631465     1.459230
     6.330000     -0.585318     1.478345
     6.330000     -0.538593     1.496000
     6.330000     -0.491337     1.512180
     6.330000     -0.443596     1.526867
     6.330000     -0.395417     1.540047
     6.330000     -0.346848     1.551708
     6.330000     -0.297936     1.561837
     6.330000     -0.248731     1.570424
     6.330000     -0.199280     1.577462
     6.330000     -0.149632     1.582944
     6.330000     -0.099837     1.586862
     6.330000     -0.049943     1.589215
     6.330000     -0.000000     1.590000
     6.330000     0.049943     1.589215
     6.330000     0.099837     1.586862
     6.330000     0.149632     1.582944
     6.330000     0.199280     1.577462
     6.330000     0.248731     1.570424
     6.330000     0.297936     1.561837
     6.330000     0.346848     1.551708
     6.330000     0.395417     1.540047
     6.330000     0.443596     1.526867
     6.330000     0.491337     1.512180
     6.330000     0.538593     1.496000
     6.330000     0.585318     1.478345
     6.330000     0.631465     1.459230
     6.330000     0.676989     1.438675
     6.330000     0.721845     1.416700
     6.330000     0.765988     1.393328
     6.330000     0.809376     1.368580
     6.330000     0.851965     1.342481
     6.330000     0.893713     1.315058
     6.330000     0.934579     1.286337
     6.330000     0.974522     1.256346
     6.330000     1.013504     1.225116
     6.330000     1.051486     1.192677
     6.330000     1.088430     1.159060
     6.330000     1.124300     1.124300
     6.330000     1.159060     1.088430
     6.330000     1.192677     1.051486
     6.330000     1.225116     1.013504
     6.330000     1.256346     0.974522
     6.330000     1.286337     0.934579
     6.330000     1.315058     0.893713
     6.330000     1.342481     0.851965
     6.330000     1.368580     0.809376
     6.330000     1.393328     0.765988
     6.330000     1.416700     0.721845
     6.330000     1.438675     0.676989
     6.330000     1.459230     0.631465
     6.330000     1.478345     0.585318
     6.330000     1.496000     0.538593
     6.330000     1.512180     0.491337
     6.330000     1.526867     0.443596
     6.330000     1.540047     0.395417
     6.330000     1.551708     0.346848
     6.330000     1.561837     0.297936
     6.330000     1.570424     0.248731
     6.330000     1.577462     0.199280
     6.330000     1.582944     0.149632
     6.330000     1.586862     0.099837
     6.330000     1.589215     0.049943
     6.330000     1.590000     0.000000
     6.330000     1.589215     -0.049943
     6.330000     1.586862     -0.099837
     6.330000     1.582944     -0.149632
     6.330000     1.577462     -0.199280
     6.330000     1.570424     -0.248731
     6.330000     1.561837     -0.297936
     6.330000     1.551708     -0.346848
     6.330000     1.540047     -0.395417
     6.330000     1.526867     -0.443596
     6.330000     1.512180     -0.491337
     6.330000     1.496000     -0.538593
     6.330000     1.478345     -0.585318
     6.330000     1.459230     -0.631465
     6.330000     1.438675     -0.676989
     6.330000     1.416700     -0.721845
     6.330000     1.393328     -0.765988
     6.330000     1.368580     -0.809376
     6.330000     1.342481     -0.851965
     6.330000     1.315058     -0.893713
     6.330000     1.286337     -0.934579
     6.330000     1.256346     -0.974522
     6.330000     1.225116     -1.013504
     6.330000     1.192677     -1.051486
     6.330000     1.159060     -1.088430
     6.330000     1.124300     -1.124300
     6.330000     1.088430     -1.159060
     6.330000     1.051486     -1.192677
     6.330000     1.013504     -1.225116
     6.330000     0.974522     -1.256346
     6.330000     0.934579     -1.286337
     6.330000     0.893713     -1.315058
     6.330000     0.851965     -1.342481
     6.330000     0.809376     -1.368580
     6.330000     0.765988     -1.393328
     6.330000     0.721845     -1.416700
     6.330000     0.676989     -1.438675
     6.330000     0.631465     -1.459230
     6.330000     0.585318     -1.478345
     6.330000     0.538593     -1.496000
     6.330000     0.491337     -1.512180
     6.330000     0.443596     -1.526867
     6.330000     0.395417     -1.540047
     6.330000     0.346848     -1.551708
     6.330000     0.297936     -1.561837
     6.330000     0.248731     -1.570424
     6.330000     0.199280     -1.577462
     6.330000     0.149632     -1.582944
     6.330000     0.099837     -1.586862
     6.330000     0.049943     -1.589215
     6.730000     0.000000     -0.990000
     6.730000     -0.031097     -0.989511
     6.730000     -0.062163     -0.988046
     6.730000     -0.093167     -0.985606
     6.730000     -0.124080     -0.982194
     6.730000     -0.154870     -0.977811
     6.730000     -0.185508     -0.972464
     6.730000     -0.215962     -0.966158
     6.730000     -0.246203     -0.958897
     6.730000     -0.276201     -0.950691
     6.730000     -0.305927     -0.941546
     6.730000     -0.335351     -0.931472
     6.730000     -0.364443     -0.920479
     6.730000     -0.393176     -0.908577
     6.730000     -0.421521     -0.895779
     6.730000     -0.449451     -0.882096
     6.730000     -0.476936     -0.867544
     6.730000     -0.503951     -0.852135
     6.730000     -0.530469     -0.835885
     6.730000     -0.556463     -0.818810
     6.730000     -0.581907     -0.800927
     6.730000     -0.606778     -0.782253
     6.730000     -0.631050     -0.762808
     6.730000     -0.654699     -0.742610
     6.730000     -0.677702     -0.721679
     6.730000     -0.700036     -0.700036
     6.730000     -0.721679     -0.677702
     6.730000     -0.742610     -0.654699
     6.730000     -0.762808     -0.631050
     6.730000     -0.782253     -0.606778
     6.730000     -0.800927     -0.581907
     6.730000     -0.818810     -0.556463
     6.730000     -0.835885     -0.530469
     6.730000     -0.852135     -0.503951
     6.730000     -0.867544     -0.476936
     6.730000     -0.882096     -0.449451
     6.730000     -0.895779     -0.421521
     6.730000     -0.908577     -0.393176
     6.730000     -0.920479     -0.364443
     6.730000     -0.931472     -0.335351
     6.730000     -0.941546     -0.305927
     6.730000     -0.950691     -0.276201
     6.730000     -0.958897     -0.246203
     6.730000     -0.966158     -0.215962
     6.730000     -0.972464     -0.185508
     6.730000     -0.977811     -0.154870
     6.730000     -0.982194     -0.124080
     6.730000     -0.985606     -0.093167
     6.730000     -0.988046     -0.062163
     6.730000     -0.989511     -0.031097
     6.730000     -0.990000     -0.000000
     6.730000     -0.989511     0.031097
     6.730000     -0.988046     0.062163
     6.730000     -0.985606     0.093167
     6.730000     -0.982194     0.124080
     6.730000     -0.977811     0.154870
     6.730000     -0.972464     0.185508
     6.730000     -0.966158     0.215962
